ply
format ascii 1.0
element vertex 1253
property float x
property float y
property float z
property uchar red
property uchar green
property uchar blue
end_header
58.3438 -7.14169 -5.33702  255 255 255
-7.64533 -10.1874 34.1366  255 255 255
67.7085 -8.92138 19.249  255 255 255
-102.773 -9.10847 -17.7418  255 255 255
61.5569 -8.80662 1.36698  255 255 255
-45.4686 -12.0606 -13.8585  255 255 255
-14.3532 -13.7146 28.5694  255 255 255
-14.3532 -13.7146 28.5694  255 255 255
-47.7336 -14.355 -12.3907  255 255 255
15.0183 -18.7889 32.1452  255 255 255
-51.2757 -22.1404 -5.66002  255 255 255
-20.9365 -20.9807 30.2664  255 255 255
-52.867 -25.014 -1.7312  255 255 255
18.7514 -28.0891 36.4975  255 255 255
8.64541 -29.7513 39.1454  255 255 255
0.292209 -30.0848 39.2868  255 255 255
-36.5613 -35.9593 10.92  255 255 255
-9.00675 -32.4334 33.9745  255 255 255
-6.71409 -34.5743 33.0754  255 255 255
-6.75465 -34.4949 33.4179  255 255 255
20.1787 -37.9701 26.2818  255 255 255
-12.7123 -40.1363 27.4714  255 255 255
62.8393 -43.1269 19.8864  255 255 255
-11.3117 -41.8621 27.7434  255 255 255
67.7947 -48.7193 26.2896  255 255 255
-21.4247 -53.0854 29.032  255 255 255
-11.2269 -57.3947 34.6995  255 255 255
-11.2269 -57.3947 34.6995  255 255 255
-16.6947 -58.2398 34.3788  255 255 255
-26.3571 65.326 -39.9842  255 255 255
-26.3571 65.326 -39.9842  255 255 255
16.4121 73.8588 -65.276  255 255 255
68.9729 85.7839 -90.7934  255 255 255
53.2595 38.6948 20.5374  255 255 255
12.1435 65.9174 -64.0929  255 255 255
7.25091 65.4127 -64.0579  255 255 255
58.0265 32.1827 27.7835  255 255 255
61.8717 23.6295 30.7333  255 255 255
56.3263 34.9687 -19.4689  255 255 255
56.6297 30.3638 -23.9894  255 255 255
65.4856 -2.80375 18.3247  255 255 255
59.7783 -2.93558 2.55283  255 255 255
68.5299 -6.66986 23.4523  255 255 255
-11.5341 -8.62314 30.5617  255 255 255
-14.1908 -10.0081 28.0981  255 255 255
-11.9919 -12.5643 31.2003  255 255 255
15.5475 -15.2324 32.8915  255 255 255
8.90396 -19.1 34.8208  255 255 255
-12.4132 -30.2559 36.2272  255 255 255
14.443 -34.4251 32.2985  255 255 255
51.3398 -38.0714 12.3445  255 255 255
0.595213 -46.4681 25.7451  255 255 255
49.4173 -50.0346 25.9716  255 255 255
-16.8366 -55.2762 32.1591  255 255 255
50.7879 78.5377 -85.0385  255 255 255
17.9744 68.8529 -67.416  255 255 255
59.4337 30.0601 28.9927  255 255 255
58.0448 24.23 20.8509  255 255 255
-39.3187 34.4878 -59.879  255 255 255
59.9514 -0.676465 3.65122  255 255 255
66.8666 -6.93843 19.0681  255 255 255
-6.65159 -13.4884 35.8186  255 255 255
-11.7812 -27.4219 36.5165  255 255 255
-1.80459 -30.2072 40.5262  255 255 255
-11.0072 -31.2092 36.0628  255 255 255
-3.11334 -31.4456 39.5562  255 255 255
-4.5181 -35.3612 33.528  255 255 255
-4.77542 -40.6646 29.0019  255 255 255
-1.63034 -42.5539 28.6287  255 255 255
-0.379355 -44.1014 29.0333  255 255 255
-27.3305 -52.1617 28.1534  255 255 255
-0.58533 63.129 -59.9838  255 255 255
-0.274748 63.348 -61.2093  255 255 255
63.0199 -0.156032 14.4931  255 255 255
65.7423 -1.08061 21.3001  255 255 255
61.9172 -2.11496 8.62335  255 255 255
66.6373 -4.52345 20.9424  255 255 255
66.6226 -4.51812 20.9071  255 255 255
9.16937 -14.4566 36.0771  255 255 255
-15.1612 -22.942 33.4018  255 255 255
-6.02258 -27.0558 34.6377  255 255 255
20.8063 74.1503 -66.9831  255 255 255
4.02473 68.2371 -59.9427  255 255 255
3.88121 67.963 -59.2334  255 255 255
9.5836 68.0074 -66.8672  255 255 255
9.58642 67.7982 -66.7389  255 255 255
44.117 72.3896 -85.6509  255 255 255
57.2946 32.9351 24.7819  255 255 255
64.5302 -5.57933 13.0706  255 255 255
9.52601 -17.2365 36.2016  255 255 255
-0.843784 -23.2628 36.4757  255 255 255
-38.5947 48.9284 -44.2981  255 255 255
-38.4659 48.6451 -43.5871  255 255 255
65.4191 6.29988 20.0929  255 255 255
63.684 -3.35085 12.9004  255 255 255
-23.6041 63.2714 -43.7132  255 255 255
6.57674 75.8135 -54.9787  255 255 255
21.8609 82.2792 -60.9378  255 255 255
-61.0343 48.119 -29.6268  255 255 255
-60.9851 48.0705 -29.4669  255 255 255
-55.0731 50.5673 -32.0763  255 255 255
21.5241 81.8516 -60.8699  255 255 255
7.61545 75.9656 -55.6257  255 255 255
-47.3188 53.332 -34.979  255 255 255
-47.2389 53.1623 -34.6085  255 255 255
-47.2594 53.1872 -34.6313  255 255 255
19.3756 80.6753 -60.3896  255 255 255
20.4635 80.8708 -60.2583  255 255 255
20.5387 80.9981 -60.6138  255 255 255
-23.6615 62.6579 -44.3395  255 255 255
-23.6743 62.6107 -44.0833  255 255 255
-23.6672 62.6404 -44.3231  255 255 255
20.0408 80.758 -60.588  255 255 255
20.0324 80.7411 -60.5382  255 255 255
-62.2833 47.105 -29.6397  255 255 255
-61.2217 47.1196 -29.9495  255 255 255
34.2262 85.5564 -66.9517  255 255 255
-72.3422 42.6177 -27.3832  255 255 255
-53.4537 49.2682 -34.0824  255 255 255
-53.4537 49.2682 -34.0824  255 255 255
-61.9505 45.534 -31.2016  255 255 255
-28.384 58.9167 -44.286  255 255 255
-74.0176 40.7004 -26.8692  255 255 255
-73.932 40.7239 -26.6421  255 255 255
-74.0234 40.7595 -26.9119  255 255 255
26.1169 81.094 -65.0944  255 255 255
-61.7845 45.1321 -31.533  255 255 255
31.628 82.6283 -67.5745  255 255 255
-1.22963 68.7169 -55.8874  255 255 255
-34.6052 54.6855 -43.0976  255 255 255
32.8871 82.27 -68.8495  255 255 255
26.051 79.0825 -66.5032  255 255 255
-5.95371 66.0095 -55.1034  255 255 255
-64.1527 42.3037 -32.0855  255 255 255
-63.2861 42.546 -32.1143  255 255 255
-76.3805 37.8956 -27.5924  255 255 255
-55.4248 45.4879 -35.2356  255 255 255
-1.22891 67.7754 -57.3781  255 255 255
33.6017 81.9271 -69.8562  255 255 255
-2.41114 66.8347 -56.5905  255 255 255
-55.7879 45.327 -35.8497  255 255 255
-16.4443 60.6304 -51.1247  255 255 255
-45.5405 49.0306 -40.7235  255 255 255
-30.6768 54.7059 -46.3715  255 255 255
-70.1353 39.2109 -31.1025  255 255 255
-17.963 59.3608 -50.9061  255 255 255
-71.4632 38.4874 -31.245  255 255 255
-12.7679 61.4939 -53.538  255 255 255
-17.3249 59.5526 -51.7386  255 255 255
-71.6247 38.1418 -30.7077  255 255 255
-57.8066 42.7508 -34.6701  255 255 255
-14.732 60.4868 -52.8621  255 255 255
48.7892 86.272 -76.5933  255 255 255
-77.3188 35.9406 -29.1724  255 255 255
-44.5728 48.2961 -41.846  255 255 255
-12.7188 60.971 -53.8478  255 255 255
-67.1927 39.1145 -32.3028  255 255 255
-41.0091 49.4641 -43.084  255 255 255
-44.2124 48.0801 -42.0982  255 255 255
-0.204235 66.0233 -59.5665  255 255 255
-57.4549 42.8179 -37.2004  255 255 255
-57.3934 42.7683 -37.0671  255 255 255
-18.2821 58.1221 -52.1882  255 255 255
-48.767 45.9617 -40.6516  255 255 255
-40.9795 48.9028 -43.5231  255 255 255
-20.1352 57.2509 -51.631  255 255 255
-4.95957 63.3784 -57.7066  255 255 255
-13.1742 59.9423 -54.7374  255 255 255
-44.92 47.1797 -42.3813  255 255 255
0.112972 65.2785 -59.6474  255 255 255
-42.5545 47.9733 -43.3929  255 255 255
-41.6417 48.2504 -43.8064  255 255 255
-72.6881 36.5537 -32.5419  255 255 255
27.246 75.8421 -69.9184  255 255 255
59.4931 88.6969 -81.7192  255 255 255
-18.9086 56.881 -52.7498  255 255 255
-66.3176 38.066 -33.9175  255 255 255
-22.1911 55.6165 -51.9664  255 255 255
29.7597 76.7106 -71.3735  255 255 255
-73.7081 35.744 -32.531  255 255 255
59.9402 88.8008 -82.9206  255 255 255
-68.1457 37.2497 -33.3116  255 255 255
-13.3648 59.0234 -55.4569  255 255 255
6.27394 66.6848 -62.4164  255 255 255
-65.8563 38.3308 -35.4637  255 255 255
-65.8563 38.3308 -35.4637  255 255 255
-7.25147 61.1424 -58.0152  255 255 255
-31.8617 51.0651 -48.4767  255 255 255
26.8494 74.957 -70.7252  255 255 255
0.0561594 63.9418 -61.0589  255 255 255
40.269 80.2056 -76.1432  255 255 255
44.1381 81.5463 -76.927  255 255 255
-48.5529 43.9981 -41.5209  255 255 255
-53.5444 42.3495 -40.4723  255 255 255
45.921 82.0129 -78.3341  255 255 255
45.9308 82.0304 -78.3747  255 255 255
21.9281 72.0906 -69.4215  255 255 255
35.9826 77.9744 -75.026  255 255 255
53.5577 84.6121 -80.3475  255 255 255
-5.88518 60.753 -59.1444  255 255 255
-6.67401 60.4296 -59.1758  255 255 255
1.08669 63.352 -61.6823  255 255 255
40.3851 79.7051 -77.3238  255 255 255
-36.4864 48.4156 -47.7763  255 255 255
-43.1609 45.5724 -45.1025  255 255 255
-37.2664 47.7596 -47.6706  255 255 255
-50.172 42.5707 -42.5724  255 255 255
-50.8069 42.3036 -42.6212  255 255 255
24.8253 72.5349 -71.5094  255 255 255
64.0274 87.9196 -85.835  255 255 255
18.4334 69.9759 -69.3671  255 255 255
-34.1014 48.6137 -49.2533  255 255 255
-45.817 43.7407 -44.6105  255 255 255
-7.63808 59.0054 -59.7713  255 255 255
-40.3194 45.4834 -46.0461  255 255 255
-40.3427 45.5293 -46.1001  255 255 255
4.68393 63.8308 -64.1412  255 255 255
4.70418 63.9452 -64.4521  255 255 255
-61.6452 36.9641 -36.7281  255 255 255
63.5011 87.0105 -86.3509  255 255 255
-49.2744 42.0555 -43.8456  255 255 255
-44.3982 43.1966 -45.3272  255 255 255
-10.172 56.8257 -58.7503  255 255 255
-43.8274 43.2685 -45.4265  255 255 255
-49.655 41.3029 -44.2404  255 255 255
-41.5846 44.0906 -46.3484  255 255 255
-41.1156 44.1994 -46.3187  255 255 255
-33.1673 47.7439 -52.7141  255 255 255
49.9296 80.4639 -82.3157  255 255 255
-41.2826 44.1999 -49.0975  255 255 255
-40.6106 44.0339 -48.0508  255 255 255
-62.1917 35.4695 -39.4865  255 255 255
-77.3929 29.5614 -35.0647  255 255 255
-77.3112 29.4827 -34.8323  255 255 255
-72.5337 31.3141 -36.8751  255 255 255
-13.7951 51.6257 -53.7268  255 255 255
-76.5663 29.4455 -35.4801  255 255 255
-43.6754 41.6221 -48.1072  255 255 255
-36.9344 44.1047 -50.6985  255 255 255
-41.6755 42.1588 -48.934  255 255 255
-7.59688 55.2831 -62.787  255 255 255
-34.0416 44.929 -53.1814  255 255 255
-47.2095 39.5098 -47.8062  255 255 255
-35.4276 44.1722 -52.7706  255 255 255
-2.62009 56.235 -65.8294  255 255 255
17.5385 64.236 -73.3924  255 255 255
-47.067 38.6399 -48.5609  255 255 255
67.7773 83.7334 -92.3103  255 255 255
15.809 63.0875 -72.614  255 255 255
17.2289 63.936 -74.0477  255 255 255
-60.2057 33.5793 -43.9047  255 255 255
-60.2057 33.5793 -43.9047  255 255 255
-5.95918 54.287 -65.1434  255 255 255
-22.9387 47.3861 -59.079  255 255 255
25.3489 66.5224 -77.2756  255 255 255
-4.71692 54.4465 -65.8881  255 255 255
-47.2762 37.6669 -49.3476  255 255 255
32.0751 68.7113 -80.1982  255 255 255
31.5888 68.4103 -79.9658  255 255 255
25.3119 65.8778 -77.7085  255 255 255
-48.866 36.6664 -49.3434  255 255 255
25.3995 65.632 -77.8655  255 255 255
-5.9633 52.9812 -66.4192  255 255 255
-77.467 25.6132 -38.858  255 255 255
15.8026 61.3641 -75.0613  255 255 255
-1.22199 54.5645 -68.407  255 255 255
-22.6976 45.9217 -60.2727  255 255 255
-59.6726 31.7899 -46.0813  255 255 255
-34.6674 41.0035 -55.597  255 255 255
-57.9407 32.631 -47.8834  255 255 255
-47.2131 36.1644 -50.637  255 255 255
33.0161 67.4919 -81.7544  255 255 255
-54.007 33.4426 -48.2351  255 255 255
-68.8093 29.3779 -47.7128  255 255 255
32.2518 67.0364 -81.8173  255 255 255
48.3554 73.3014 -87.7316  255 255 255
34.2627 67.7578 -82.8423  255 255 255
34.2627 67.7578 -82.8423  255 255 255
32.0421 66.8006 -82.6085  255 255 255
-7.09153 50.8974 -67.5526  255 255 255
53.2764 74.3176 -90.08  255 255 255
53.3192 74.3908 -90.2543  255 255 255
-10.8518 48.856 -66.1725  255 255 255
31.9863 65.7253 -82.7212  255 255 255
31.9764 65.717 -82.6883  255 255 255
33.1299 66.1464 -83.1351  255 255 255
33.8791 66.3522 -83.1971  255 255 255
53.0638 73.7119 -90.5201  255 255 255
54.4532 74.2812 -91.0618  255 255 255
58.6379 75.7278 -92.8761  255 255 255
12.6457 57.7212 -75.8692  255 255 255
32.3474 65.5987 -83.8419  255 255 255
-28.1644 41.6664 -60.1841  255 255 255
63.1472 77.1459 -94.4157  255 255 255
-60.2197 29.2679 -47.9202  255 255 255
-30.0953 40.6637 -60.1385  255 255 255
50.284 71.6205 -90.2096  255 255 255
11.888 56.4678 -76.2157  255 255 255
11.9059 56.4693 -76.1187  255 255 255
35.6356 65.779 -85.6945  255 255 255
31.9471 63.7401 -83.3829  255 255 255
-22.0758 42.3948 -64.0435  255 255 255
-33.2528 37.5019 -59.7418  255 255 255
62.6739 74.8647 -96.5996  255 255 255
-30.6964 38.4511 -61.2334  255 255 255
57.1594 72.2313 -94.9322  255 255 255
57.0651 72.2235 -94.7622  255 255 255
51.9889 69.9305 -92.2801  255 255 255
-48.9654 28.9151 -49.2756  255 255 255
-48.9654 28.9151 -49.2756  255 255 255
32.5071 62.1685 -86.323  255 255 255
43.4001 66.331 -90.4343  255 255 255
43.2605 66.1353 -89.8893  255 255 255
55.0827 70.6311 -94.696  255 255 255
16.3835 55.1958 -80.5599  255 255 255
-41.8476 33.0271 -59.9158  255 255 255
18.1425 55.2718 -81.2268  255 255 255
-41.0917 32.883 -60.5341  255 255 255
37.6811 62.4941 -89.6105  255 255 255
33.2921 60.5532 -87.8349  255 255 255
29.8424 59.1069 -86.5234  255 255 255
49.942 66.8059 -94.2496  255 255 255
-62.9526 23.1748 -52.145  255 255 255
47.6468 65.6878 -97.6593  255 255 255
52.9073 46.5464 -23.3095  255 255 255
-87.7413 9.06228 -37.6438  255 255 255
53.5333 43.8995 -22.064  255 255 255
53.5333 43.8995 -22.064  255 255 255
-84.8073 8.96799 -37.6325  255 255 255
-64.7508 15.664 -44.5579  255 255 255
-61.1187 15.5784 -44.2187  255 255 255
54.1508 41.4899 -23.1057  255 255 255
54.5132 41.3157 -21.9554  255 255 255
54.5132 41.3157 -21.9554  255 255 255
17.3595 40.7142 -69.7986  255 255 255
10.7235 38.1165 -67.144  255 255 255
19.2351 39.3689 -68.4316  255 255 255
54.4953 38.3896 -23.5343  255 255 255
11.4537 31.4731 -60.1348  255 255 255
22.7619 35.1219 -64.0225  255 255 255
14.3467 30.3186 -58.8517  255 255 255
9.0777 28.014 -56.4091  255 255 255
9.10146 28.0588 -56.5838  255 255 255
42.9411 39.9043 -68.9019  255 255 255
10.4745 27.8768 -57.187  255 255 255
14.563 28.5596 -57.1047  255 255 255
54.8375 35.3423 -30.2736  255 255 255
-90.0409 -7.61554 -19.6091  255 255 255
43.9621 38.0042 -67.1281  255 255 255
-83.1444 -6.56282 -20.9906  255 255 255
54.1937 33.5857 -27.8657  255 255 255
9.52048 24.7571 -53.6666  255 255 255
56.4493 33.0714 -22.1849  255 255 255
-32.0738 10.0578 -40.4223  255 255 255
-73.6489 -4.92497 -22.6474  255 255 255
10.6829 23.9118 -53.1095  255 255 255
21.3204 27.0177 -55.1354  255 255 255
56.5681 31.387 -23.0092  255 255 255
4.87343 20.0766 -47.9209  255 255 255
12.4955 22.5018 -49.5849  255 255 255
3.03426 19.3033 -47.027  255 255 255
23.5088 26.4034 -54.183  255 255 255
25.2427 26.8552 -54.9322  255 255 255
53.1654 31.6622 -33.378  255 255 255
32.1992 28.4859 -56.7637  255 255 255
56.536 30.3283 -23.9313  255 255 255
56.567 30.3435 -23.9734  255 255 255
52.5485 30.7462 -34.4566  255 255 255
28.1905 25.9408 -54.3157  255 255 255
7.46961 18.2415 -46.0371  255 255 255
31.2345 26.7864 -55.2767  255 255 255
56.3986 29.3528 -25.3448  255 255 255
47.0232 30.765 -58.9467  255 255 255
13.9616 18.9696 -46.8734  255 255 255
-57.1632 -5.22565 -23.4844  255 255 255
-17.146 1.93385 5.33766  255 255 255
-16.5245 1.9856 5.3121  255 255 255
-40.8748 -1.07583 -25.7977  255 255 255
55.6703 27.8222 -31.7047  255 255 255
55.6703 27.8222 -31.7047  255 255 255
-3.17669 2.26069 25.5829  255 255 255
-20.3037 -1.02961 8.49232  255 255 255
3.64692 3.95089 22.6585  255 255 255
3.64692 3.95089 22.6585  255 255 255
6.81735 4.8016 23.1697  255 255 255
-21.1299 -1.79003 9.38899  255 255 255
6.18621 4.3815 23.5529  255 255 255
6.1938 4.36836 23.4299  255 255 255
-6.23633 -0.177717 29.1058  255 255 255
-10.6943 -1.61331 27.1266  255 255 255
54.5005 25.5584 -34.1393  255 255 255
-34.668 -2.56046 -24.6939  255 255 255
58.6229 25.0083 -23.4869  255 255 255
-62.7494 -11.8238 -15.8339  255 255 255
43.684 23.1819 -51.0136  255 255 255
-57.0962 -10.7136 -17.6385  255 255 255
-16.7334 -3.07625 15.3573  255 255 255
55.0636 24.0819 -33.1168  255 255 255
9.40345 3.51057 24.2795  255 255 255
22.6959 15.058 -40.888  255 255 255
35.9355 19.547 -46.8016  255 255 255
9.45075 2.99351 25.6947  255 255 255
51.9224 18.3181 -0.366758  255 255 255
3.61283 0.255581 28.2984  255 255 255
-14.8747 -4.99607 24.8557  255 255 255
-5.81426 -3.12774 31.6218  255 255 255
53.8584 22.1374 -37.236  255 255 255
-18.6544 -5.77384 18.5069  255 255 255
11.7777 2.64805 24.5418  255 255 255
2.70053 -0.780075 29.4343  255 255 255
57.0646 21.697 -30.4686  255 255 255
12.6605 2.61411 23.5435  255 255 255
-24.7095 -8.60633 17.254  255 255 255
34.2787 14.6379 -40.8559  255 255 255
-10.0838 -5.97197 30.7989  255 255 255
37.4516 14.7982 -41.2801  255 255 255
10.0102 0.309462 26.6409  255 255 255
-4.41233 -4.64707 33.223  255 255 255
-4.49051 -4.8965 33.4676  255 255 255
39.9851 14.4123 -41.5389  255 255 255
48.6322 17.2742 -45.0688  255 255 255
-6.56766 -6.03417 33.1059  255 255 255
-34.5461 -10.3848 -16.4408  255 255 255
-34.4985 -10.3919 -16.4605  255 255 255
-11.7926 -7.55968 30.0336  255 255 255
52.2544 14.7665 -5.62186  255 255 255
-10.1118 -7.44035 31.8087  255 255 255
-10.1243 -7.41918 31.4166  255 255 255
38.0998 12.6962 -39.3794  255 255 255
-14.5012 -8.6713 27.6033  255 255 255
52.2564 13.8788 -2.7437  255 255 255
-1.35484 -5.39176 34.616  255 255 255
31.8544 9.93392 -36.4183  255 255 255
12.5585 -1.02127 28.5795  255 255 255
-4.0071 -6.53301 34.4696  255 255 255
-2.38535 -6.06763 34.8269  255 255 255
35.9109 10.5312 -36.9131  255 255 255
14.0187 -0.769266 27.0409  255 255 255
13.9984 -0.75491 27.203  255 255 255
32.7603 9.41057 -37.2496  255 255 255
14.9179 -0.528298 26.3225  255 255 255
14.2287 -0.932503 27.0501  255 255 255
14.2287 -0.932503 27.0501  255 255 255
-1.97975 -6.50624 35.1312  255 255 255
54.3257 13.0107 -0.95987  255 255 255
-18.6847 -11.821 25.0151  255 255 255
-7.39674 -8.95201 33.9192  255 255 255
53.2311 11.6411 -1.94893  255 255 255
1.88832 -6.35051 35.6054  255 255 255
58.1363 14.9177 -32.4681  255 255 255
53.9093 11.563 -0.410216  255 255 255
57.2606 14.4252 -34.7361  255 255 255
57.3427 14.4819 -34.9868  255 255 255
-4.09902 -8.46281 35.3721  255 255 255
13.6373 -2.79018 29.6996  255 255 255
-4.13012 -8.67845 35.3355  255 255 255
54.387 10.991 0.151762  255 255 255
-0.364749 -7.98285 36.0821  255 255 255
10.8296 -4.4168 32.2587  255 255 255
54.0364 10.312 -1.22004  255 255 255
5.681 -6.43415 35.1874  255 255 255
6.7741 -6.1078 34.5266  255 255 255
17.6763 -2.29946 25.0999  255 255 255
0.610258 -8.16383 36.3672  255 255 255
-7.36359 -10.5625 34.3053  255 255 255
-18.0917 -13.5889 27.0028  255 255 255
-18.1296 -13.5937 26.7101  255 255 255
-18.1142 -13.5959 26.7662  255 255 255
-18.1209 -13.598 26.7885  255 255 255
-17.8248 -13.6085 26.869  255 255 255
-17.8248 -13.6085 26.869  255 255 255
52.6842 9.52204 -5.50154  255 255 255
15.9914 -3.37184 28.252  255 255 255
-17.0863 -13.4555 26.6487  255 255 255
-9.17287 -11.5526 33.8988  255 255 255
3.38571 -7.79272 35.9585  255 255 255
-1.721 -9.53789 36.3486  255 255 255
-1.72071 -9.54136 36.3409  255 255 255
11.6512 -5.39335 32.8511  255 255 255
3.14698 -8.29712 36.2765  255 255 255
7.48445 -7.14174 34.9921  255 255 255
-2.74456 -10.2508 35.8548  255 255 255
6.70161 -7.64708 35.519  255 255 255
12.0929 -6.10042 32.4195  255 255 255
-0.249259 -10.1045 36.6149  255 255 255
-3.29798 -11.1167 36.2885  255 255 255
12.0487 -6.3935 32.5469  255 255 255
12.2942 -6.3608 32.4911  255 255 255
54.9617 7.58935 -1.15709  255 255 255
55.4999 7.79297 -2.51117  255 255 255
41.5871 4.27815 -30.3756  255 255 255
-45.4933 -23.4894 -2.46421  255 255 255
-22.7148 -17.5876 26.9356  255 255 255
53.6473 6.87461 -5.25592  255 255 255
53.26 6.67663 -6.27463  255 255 255
-4.76761 -12.3721 35.903  255 255 255
12.739 -7.00744 32.7687  255 255 255
5.16355 -9.58143 36.5516  255 255 255
0.282345 -11.2192 37.3361  255 255 255
54.0232 6.35827 -5.04706  255 255 255
40.4631 2.46004 -28.8587  255 255 255
1.145 -11.1612 36.9639  255 255 255
13.8506 -7.27036 32.3605  255 255 255
-3.68112 -12.9034 36.3153  255 255 255
-1.62002 -12.2616 36.8157  255 255 255
13.6336 -7.50035 32.2076  255 255 255
51.5214 5.02883 -12.6936  255 255 255
12.7868 -7.85849 33.0102  255 255 255
-11.2015 -15.3979 32.2357  255 255 255
-5.19556 -13.5173 35.7566  255 255 255
39.7004 1.38378 -27.6157  255 255 255
17.4663 -6.57046 29.1078  255 255 255
52.7095 4.99243 -10.2823  255 255 255
13.7724 -7.83596 32.4146  255 255 255
15.8253 -7.20416 30.8079  255 255 255
-1.16569 -12.7703 36.9581  255 255 255
-5.43019 -14.0733 35.7584  255 255 255
-3.04838 -13.3571 36.5411  255 255 255
-3.04781 -13.3582 36.5419  255 255 255
55.137 5.20389 -4.11643  255 255 255
54.8888 5.10556 -3.45998  255 255 255
-4.12542 -13.8503 36.2418  255 255 255
54.5434 4.76937 -4.53032  255 255 255
11.638 -9.03549 33.9871  255 255 255
1.52985 -12.3013 37.2666  255 255 255
-7.58244 -15.2369 34.6974  255 255 255
52.6151 3.78575 -11.1902  255 255 255
51.9958 3.41348 -12.5454  255 255 255
51.9815 3.43218 -12.5108  255 255 255
0.0894326 -13.2631 37.3329  255 255 255
0.0902782 -13.2695 37.2324  255 255 255
-8.92851 -16.1218 33.7989  255 255 255
-1.34348 -13.7929 37.0028  255 255 255
-1.12443 -13.7302 37.35  255 255 255
4.92455 -11.8414 36.8471  255 255 255
55.2958 3.84485 -3.17603  255 255 255
11.0438 -10.2067 34.574  255 255 255
3.2503 -12.6772 37.2609  255 255 255
-9.97011 -17.2388 32.803  255 255 255
9.06253 -11.2864 35.5086  255 255 255
54.155 2.49146 -7.5598  255 255 255
4.59652 -12.8917 37.2533  255 255 255
17.8079 -8.812 29.9173  255 255 255
55.3553 2.75138 -4.06429  255 255 255
5.23339 -12.7453 37.3729  255 255 255
7.86599 -11.9694 36.436  255 255 255
54.7353 2.41829 -6.12249  255 255 255
-11.4222 -18.1825 31.7616  255 255 255
52.9807 1.61961 -11.8635  255 255 255
11.1651 -11.1952 34.8659  255 255 255
11.1651 -11.1952 34.8659  255 255 255
-15.2179 -19.4319 31.9221  255 255 255
15.1489 -9.98656 32.4186  255 255 255
7.40066 -12.4555 36.4094  255 255 255
4.70395 -13.504 37.4635  255 255 255
4.4556 -13.6325 37.5288  255 255 255
-43.0138 -28.9355 3.31357  255 255 255
10.8327 -11.6939 35.0489  255 255 255
-48.2047 -30.6991 4.25092  255 255 255
5.2739 -13.5485 37.0862  255 255 255
8.76311 -12.4544 36.1705  255 255 255
-2.94582 -16.2254 36.8976  255 255 255
-2.93765 -16.2321 36.643  255 255 255
-5.71393 -17.1833 35.4747  255 255 255
13.4358 -11.3986 33.7393  255 255 255
-0.260783 -15.823 37.1824  255 255 255
7.93595 -13.2791 36.6333  255 255 255
14.7399 -11.3487 32.8211  255 255 255
14.7399 -11.3487 32.8211  255 255 255
23.1731 -8.99828 20.384  255 255 255
17.1372 -10.7479 30.9645  255 255 255
56.5323 0.948738 -2.33101  255 255 255
-3.92103 -17.3998 36.114  255 255 255
16.2439 -11.3555 31.9452  255 255 255
-2.68577 -17.6437 36.5466  255 255 255
9.39292 -13.9254 36.0475  255 255 255
54.3266 -1.07419 -10.4832  255 255 255
-5.50174 -19.0491 35.1919  255 255 255
-13.3106 -21.632 32.692  255 255 255
5.75887 -15.5693 37.1895  255 255 255
1.33302 -17.0451 37.2221  255 255 255
2.97167 -16.6363 37.2286  255 255 255
0.627087 -17.5791 37.4528  255 255 255
2.60328 -16.977 37.2083  255 255 255
3.55122 -16.7219 37.2941  255 255 255
15.7772 -13.1119 32.4476  255 255 255
3.37797 -16.9256 37.2212  255 255 255
54.3184 -2.66834 -11.1587  255 255 255
54.3095 -2.67955 -11.2203  255 255 255
-38.8785 -31.7547 6.31538  255 255 255
56.1143 -2.11977 -6.4677  255 255 255
9.29469 -15.2514 36.2546  255 255 255
-0.683858 -18.439 36.9044  255 255 255
15.406 -13.471 33.2674  255 255 255
9.65666 -15.2255 36.2498  255 255 255
-68.7926 -41.7265 16.7042  255 255 255
-9.05779 -21.6702 35.2414  255 255 255
-16.2565 -24.1092 33.1265  255 255 255
0.966976 -18.6386 36.9016  255 255 255
55.5978 -3.42039 -9.01748  255 255 255
4.17478 -17.6527 37.1464  255 255 255
10.2576 -15.8304 35.7814  255 255 255
55.6747 -3.54342 -8.45715  255 255 255
17.8584 -13.7472 30.7337  255 255 255
-5.27543 -20.93 34.6577  255 255 255
14.6858 -14.6771 33.4816  255 255 255
58.4558 -2.49999 0.0265269  255 255 255
55.882 -3.79741 -8.29464  255 255 255
9.60332 -16.348 36.0737  255 255 255
-14.0834 -24.1585 33.4503  255 255 255
-66.8214 -42.2215 16.8177  255 255 255
-14.4745 -24.4536 33.7542  255 255 255
-0.621026 -19.9201 36.2123  255 255 255
-15.1842 -24.7097 33.9988  255 255 255
57.5292 -3.54729 -2.30584  255 255 255
55.4876 -4.64117 -8.72551  255 255 255
0.557593 -19.7247 36.4627  255 255 255
58.3021 -3.60871 -1.76073  255 255 255
4.73985 -18.5258 36.803  255 255 255
-0.424206 -20.2388 36.2165  255 255 255
12.4627 -16.3014 33.7686  255 255 255
6.88007 -17.9646 36.5956  255 255 255
3.62105 -19.088 36.733  255 255 255
-6.29747 -22.4042 35.9571  255 255 255
2.13369 -19.7515 36.5192  255 255 255
17.9351 -15.1206 30.9325  255 255 255
8.21764 -17.9194 36.4316  255 255 255
29.493 -12.3153 19.5574  255 255 255
0.51952 -20.6385 36.2444  255 255 255
29.5558 -12.5444 19.2112  255 255 255
9.79928 -17.9336 35.6688  255 255 255
18.4573 -15.6187 30.1418  255 255 255
10.0039 -18.0029 35.684  255 255 255
-11.9743 -25.3948 34.7698  255 255 255
2.8988 -20.544 36.2944  255 255 255
57.858 -5.98766 -5.22951  255 255 255
54.4635 -7.63616 -12.4109  255 255 255
17.2943 -16.4811 31.4912  255 255 255
-3.17758 -22.8267 36.6812  255 255 255
30.5727 -13.2115 20.4454  255 255 255
18.6727 -16.3795 30.028  255 255 255
4.15655 -20.6444 36.1555  255 255 255
5.3257 -20.277 36.1686  255 255 255
7.45439 -19.5854 36.012  255 255 255
18.5076 -16.6445 29.7695  255 255 255
7.64933 -19.6372 36.1439  255 255 255
5.33519 -20.4753 36.0447  255 255 255
4.39497 -20.8197 36.0312  255 255 255
10.8401 -18.8377 35.3489  255 255 255
7.28088 -20.0543 35.9147  255 255 255
30.3338 -13.8692 21.1913  255 255 255
56.7105 -7.78411 -9.05699  255 255 255
55.3086 -8.61813 -13.6548  255 255 255
19.8665 -16.8728 29.4498  255 255 255
54.9277 -8.92213 -11.9388  255 255 255
56.8502 -7.96441 -7.50453  255 255 255
0.367594 -22.6523 36.2126  255 255 255
57.162 -7.97314 -7.03085  255 255 255
-7.55452 -25.3731 35.2161  255 255 255
15.5314 -18.1745 32.6112  255 255 255
-53.3735 -42.1867 16.9465  255 255 255
7.31171 -20.9434 35.5118  255 255 255
0.633967 -23.4307 36.8731  255 255 255
17.8669 -18.461 31.2191  255 255 255
-11.6126 -27.5305 36.8913  255 255 255
-4.4131 -25.2301 36.4289  255 255 255
-4.41401 -25.221 36.4243  255 255 255
58.4598 -8.82321 -5.73206  255 255 255
14.1248 -19.6361 32.7789  255 255 255
25.6103 -16.7456 24.6919  255 255 255
-11.7712 -27.8581 36.8893  255 255 255
19.5006 -18.3685 31.3231  255 255 255
58.3682 -9.29467 -5.7262  255 255 255
-13.7084 -28.9977 33.5451  255 255 255
11.03 -21.0032 34.6173  255 255 255
3.77053 -23.1632 36.8091  255 255 255
8.95724 -21.7839 35.1001  255 255 255
2.04462 -24.1605 37.6934  255 255 255
9.05875 -22.1457 35.5173  255 255 255
59.6299 -9.6944 -2.6734  255 255 255
59.0944 -10.1267 -4.99939  255 255 255
0.953198 -24.7888 37.838  255 255 255
6.03565 -23.2589 36.6511  255 255 255
14.7107 -20.8242 33.4566  255 255 255
-2.16116 -26.0623 37.1305  255 255 255
9.99655 -22.3221 35.7108  255 255 255
57.5024 -11.4015 -6.23698  255 255 255
6.14102 -23.53 36.8875  255 255 255
16.6856 -20.5178 33.3364  255 255 255
4.37259 -24.2348 37.6323  255 255 255
12.2368 -22.0331 35.442  255 255 255
-8.63536 -28.6782 37.989  255 255 255
-3.84662 -27.2769 36.5903  255 255 255
24.8384 -19.1066 27.556  255 255 255
4.09476 -24.9393 37.5214  255 255 255
4.09476 -24.9393 37.5214  255 255 255
1.66043 -25.9251 37.2084  255 255 255
58.5604 -12.6036 -7.83904  255 255 255
58.5604 -12.6036 -7.83904  255 255 255
58.028 -13.5567 -11.0848  255 255 255
19.524 -21.1154 31.5902  255 255 255
-37.8475 -42.0057 16.8496  255 255 255
-2.41701 -27.8386 37.3004  255 255 255
60.2796 -12.6869 -3.67781  255 255 255
61.224 -12.1102 -1.07517  255 255 255
24.7434 -20.4732 28.5192  255 255 255
58.4968 -14.1669 -9.80891  255 255 255
61.2577 -12.2925 -1.61957  255 255 255
61.1159 -12.4281 -0.596778  255 255 255
61.1926 -12.4018 -0.695452  255 255 255
4.09706 -26.3582 36.7919  255 255 255
2.20072 -27.0572 36.524  255 255 255
2.20072 -27.0572 36.524  255 255 255
-10.5524 -31.7227 33.875  255 255 255
-3.83396 -28.9432 38.4388  255 255 255
-3.83396 -28.9432 38.4388  255 255 255
57.3239 -15.1917 -9.20729  255 255 255
60.8286 -13.1616 -2.25233  255 255 255
-45.5817 -45.4539 20.8161  255 255 255
62.0765 -12.9425 -0.0686444  255 255 255
62.0952 -12.9133 -0.079159  255 255 255
13.259 -24.4 35.0216  255 255 255
13.259 -24.4 35.0216  255 255 255
61.0041 -14.0928 -3.77283  255 255 255
1.1473 -28.1816 37.2647  255 255 255
10.9044 -25.1217 36.1351  255 255 255
23.122 -21.8917 30.3684  255 255 255
60.4808 -14.1697 -1.95932  255 255 255
62.0008 -13.5049 0.0393074  255 255 255
13.9733 -24.5108 34.8155  255 255 255
59.4015 -15.851 -9.8801  255 255 255
0.288448 -28.736 38.3157  255 255 255
-1.00645 -29.4324 38.9061  255 255 255
20.4886 -23.394 32.0216  255 255 255
62.3204 -14.2643 -0.133733  255 255 255
62.253 -14.2784 0.00681033  255 255 255
61.6183 -14.9123 -2.83791  255 255 255
61.6183 -14.9123 -2.83791  255 255 255
-7.85864 -33.1219 33.9638  255 255 255
-1.17939 -30.162 39.6513  255 255 255
-38.0792 -45.6935 20.9748  255 255 255
-1.51738 -30.5033 40.4183  255 255 255
11.3164 -26.8895 36.3646  255 255 255
-58.7145 -52.3456 28.4815  255 255 255
5.9717 -28.6448 37.8887  255 255 255
8.49453 -27.9352 37.4896  255 255 255
9.26823 -27.8776 36.9385  255 255 255
24.1647 -23.8863 31.6829  255 255 255
60.9203 -17.9242 -7.12547  255 255 255
60.9343 -17.9202 -7.18601  255 255 255
61.0177 -18.2546 -7.28208  255 255 255
-34.8704 -46.0566 20.5887  255 255 255
12.5859 -27.5883 36.6796  255 255 255
12.5859 -27.5883 36.6796  255 255 255
15.9938 -26.6383 35.4324  255 255 255
15.6667 -26.9331 36.0559  255 255 255
15.6667 -26.9331 36.0559  255 255 255
11.965 -28.006 37.1774  255 255 255
3.07408 -30.6955 39.2663  255 255 255
15.8251 -27.1501 36.0156  255 255 255
13.7579 -27.722 37.1392  255 255 255
1.67764 -31.519 38.6127  255 255 255
13.2346 -28.1104 37.2899  255 255 255
19.7282 -26.396 35.1032  255 255 255
62.0802 -19.3162 -4.90004  255 255 255
-67.7285 -57.2331 33.2415  255 255 255
-27.3391 -44.7893 21.383  255 255 255
-16.2877 -40.3544 27.1103  255 255 255
24.1973 -26.5382 29.0062  255 255 255
-33.1081 -47.2878 22.7158  255 255 255
-19.2086 -42.2845 23.6848  255 255 255
6.16177 -31.1696 39.2653  255 255 255
61.1213 -20.6775 -2.97314  255 255 255
63.214 -19.964 -2.66967  255 255 255
-33.0685 -48.1978 23.7459  255 255 255
24.4679 -27.9434 27.6405  255 255 255
14.3476 -29.7481 36.5332  255 255 255
63.3235 -21.3277 -2.35485  255 255 255
63.3311 -21.3112 -2.4013  255 255 255
7.22364 -32.6421 37.2205  255 255 255
17.0174 -29.9883 34.6213  255 255 255
-34.1404 -49.4397 24.8887  255 255 255
-36.8925 -50.5294 25.7568  255 255 255
17.1566 -30.2205 34.3745  255 255 255
64.2024 -22.3628 -2.31588  255 255 255
62.6856 -22.5121 1.24823  255 255 255
-35.8158 -51.1198 26.8244  255 255 255
10.991 -33.2207 35.0627  255 255 255
64.5627 -23.0539 -1.52966  255 255 255
64.6388 -23.0071 -1.07723  255 255 255
15.7433 -32.6413 32.8704  255 255 255
13.6024 -33.4822 33.5195  255 255 255
8.55658 -35.2212 34.6363  255 255 255
6.2537 -36.4484 33.5682  255 255 255
2.12258 -38.144 32.3961  255 255 255
16.8894 -33.3788 31.3855  255 255 255
13.2089 -35.0776 32.3044  255 255 255
13.1908 -35.0628 32.4742  255 255 255
13.0429 -35.2619 32.2339  255 255 255
-0.507045 -40.8401 30.0551  255 255 255
57.3394 -27.3886 3.04171  255 255 255
54.6874 -27.985 4.75454  255 255 255
-45.7655 -56.7296 32.9233  255 255 255
52.2246 -28.9153 4.94262  255 255 255
12.72 -37.966 30.0436  255 255 255
56.8081 -29.4863 7.56885  255 255 255
17.3843 -38.6036 27.0992  255 255 255
-64.3528 -65.4856 41.9803  255 255 255
9.90655 -41.2238 30.4356  255 255 255
-19.1908 -53.1709 29.122  255 255 255
34.0052 -38.6892 17.581  255 255 255
55.1264 -34.1295 11.9875  255 255 255
54.7893 -34.2291 12.3584  255 255 255
54.7893 -34.2291 12.3584  255 255 255
53.3297 -35.5833 12.3596  255 255 255
-15.6778 -54.8384 31.0694  255 255 255
7.25785 -48.0816 29.1868  255 255 255
-2.49923 -52.1068 31.3414  255 255 255
31.0916 -43.8365 21.9153  255 255 255
-27.9592 -61.0968 35.581  255 255 255
40.2344 -41.8957 19.1598  255 255 255
-51.41 -67.8555 44.6007  255 255 255
-26.7812 -60.8223 36.9736  255 255 255
-26.7812 -60.8223 36.9736  255 255 255
-1.95501 -53.3754 31.3191  255 255 255
53.0524 -38.7117 17.3875  255 255 255
49.6825 -39.9874 17.1388  255 255 255
-0.826666 -53.3212 31.2725  255 255 255
38.5188 -44.0293 19.0757  255 255 255
-15.4717 -58.5373 35.2665  255 255 255
-56.9436 -70.9241 47.5584  255 255 255
48.7651 -41.2244 18.5006  255 255 255
12.2728 -50.8374 29.6524  255 255 255
4.74196 -55.0422 31.6535  255 255 255
-1.3371 -56.8297 33.1462  255 255 255
-19.9049 -62.1406 38.5501  255 255 255
7.08913 -56.0659 32.6388  255 255 255
4.87014 -57.2241 32.8728  255 255 255
54.6194 -44.4345 20.2875  255 255 255
51.6256 -45.6088 21.4399  255 255 255
46.4361 -46.2954 24.9261  255 255 255
11.7342 -56.3536 32.8903  255 255 255
1.11143 -59.9319 36.2421  255 255 255
18.9835 80.9668 -59.8748  255 255 255
4.35874 74.6812 -54.1686  255 255 255
-53.1193 51.0316 -32.8457  255 255 255
18.4399 80.1281 -60.1443  255 255 255
25.6543 82.9374 -63.1308  255 255 255
25.6575 82.9333 -63.1534  255 255 255
52.0158 93.3092 -73.1263  255 255 255
49.5197 91.9443 -72.0836  255 255 255
24.5973 81.6608 -63.2048  255 255 255
51.4382 92.3822 -72.963  255 255 255
21.9728 80.448 -62.5827  255 255 255
21.9022 80.2864 -62.203  255 255 255
48.2879 91.1544 -72.2596  255 255 255
-74.5951 41.3462 -25.851  255 255 255
-61.2208 46.4537 -30.8981  255 255 255
-1.78898 70.2626 -53.7875  255 255 255
-1.78953 70.2324 -53.7478  255 255 255
17.6692 78.1156 -60.8652  255 255 255
17.6692 78.1156 -60.8652  255 255 255
-62.3597 45.6565 -31.1839  255 255 255
34.886 84.974 -67.9632  255 255 255
53.8229 92.5242 -75.0049  255 255 255
-1.999 68.3791 -55.4511  255 255 255
-45.2032 50.5891 -39.197  255 255 255
4.49797 69.6328 -57.9128  255 255 255
-79.3169 36.5907 -26.715  255 255 255
-4.94682 65.2951 -55.7509  255 255 255
-74.0134 37.9391 -29.4729  255 255 255
-74.0594 37.9721 -29.6324  255 255 255
48.7181 86.83 -75.89  255 255 255
16.918 73.9359 -64.4605  255 255 255
62.3101 91.6668 -81.148  255 255 255
-17.9436 59.2456 -51.6568  255 255 255
-58.3549 42.6441 -36.5986  255 255 255
62.4099 90.8493 -82.1  255 255 255
-8.86068 61.7425 -56.1099  255 255 255
42.9708 82.5933 -76.015  255 255 255
29.3738 76.9984 -71.0102  255 255 255
-29.3265 52.96 -48.8298  255 255 255
41.5424 81.5316 -75.4611  255 255 255
64.7332 90.6926 -84.2106  255 255 255
-48.8713 44.7517 -41.8069  255 255 255
61.5405 88.5686 -83.3773  255 255 255
-49.1376 44.1891 -42.3304  255 255 255
0.739121 63.8776 -61.0831  255 255 255
-20.2588 54.5712 -54.3801  255 255 255
-41.4574 45.832 -46.1425  255 255 255
-41.145 45.6416 -46.7487  255 255 255
-10.573 57.1449 -58.9003  255 255 255
-40.1697 44.1787 -48.3016  255 255 255
-74.366 30.8905 -35.8329  255 255 255
-47.7365 40.4702 -46.1664  255 255 255
-73.781 30.4996 -35.5318  255 255 255
18.6079 65.5889 -72.9729  255 255 255
-58.6058 34.3473 -44.1708  255 255 255
-58.6405 34.39 -44.3723  255 255 255
29.781 68.9288 -78.8025  255 255 255
-60.4937 33.2021 -44.3332  255 255 255
53.1287 77.4312 -87.6694  255 255 255
-63.8367 31.6935 -43.506  255 255 255
-47.0958 37.2608 -49.8862  255 255 255
52.424 76.2745 -87.3694  255 255 255
52.424 76.2745 -87.3694  255 255 255
-55.1378 33.305 -46.678  255 255 255
-23.512 45.584 -59.9741  255 255 255
-23.5274 45.5811 -59.9545  255 255 255
-46.327 36.6758 -50.6516  255 255 255
-5.98266 52.3252 -66.9154  255 255 255
8.8301 58.0382 -73.0431  255 255 255
23.8749 64.5048 -81.4446  255 255 255
30.01 66.2365 -81.2459  255 255 255
-45.8214 36.2499 -52.2806  255 255 255
-30.7935 41.6586 -58.3419  255 255 255
-21.3712 45.2783 -61.8697  255 255 255
-78.5891 23.6712 -39.423  255 255 255
-20.9625 45.0115 -61.9949  255 255 255
-12.285 48.5686 -65.549  255 255 255
-80.1492 23.0491 -39.0504  255 255 255
-8.57368 49.8519 -67.2043  255 255 255
23.5173 63.2224 -81.2492  255 255 255
-20.9448 44.4065 -62.7166  255 255 255
-58.6269 30.0032 -48.824  255 255 255
-22.1529 43.6912 -62.9851  255 255 255
-22.0922 43.5903 -62.6655  255 255 255
-34.1041 39.1209 -59.0692  255 255 255
33.395 65.2516 -84.6101  255 255 255
33.3718 65.2294 -84.5223  255 255 255
14.2622 57.4214 -77.1135  255 255 255
34.4792 65.199 -85.0668  255 255 255
34.4559 65.2142 -85.0469  255 255 255
55.5296 72.815 -93.187  255 255 255
30.118 62.6724 -84.0017  255 255 255
36.8849 64.7927 -85.1703  255 255 255
38.5514 64.6927 -87.1728  255 255 255
41.4948 65.9121 -88.7881  255 255 255
14.502 55.4519 -79.3601  255 255 255
15.1476 55.3923 -79.8506  255 255 255
17.7201 56.0674 -80.7668  255 255 255
19.4061 56.3408 -81.8667  255 255 255
36.2628 62.9751 -88.2698  255 255 255
38.3468 63.3877 -89.4052  255 255 255
36.2595 62.6448 -88.988  255 255 255
19.43 55.8389 -82.2914  255 255 255
39.4809 63.4155 -88.9315  255 255 255
37.1365 62.662 -89.3644  255 255 255
-19.4616 39.4893 -67.8229  255 255 255
-63.0792 22.6397 -51.6631  255 255 255
-25.2379 33.0095 -62.124  255 255 255
-25.2379 33.0095 -62.124  255 255 255
-61.5672 19.5201 -47.9341  255 255 255
-89.0078 9.61239 -38.2715  255 255 255
8.91179 43.9335 -73.0616  255 255 255
-65.7937 16.2767 -45.2129  255 255 255
13.4036 44.4464 -73.6344  255 255 255
13.4082 44.4613 -73.6897  255 255 255
16.7949 41.4529 -70.2933  255 255 255
20.0952 41.0798 -70.1308  255 255 255
20.0952 41.0798 -70.1308  255 255 255
18.3 40.3857 -69.4156  255 255 255
10.8166 37.4408 -66.4934  255 255 255
10.2787 36.9784 -65.5569  255 255 255
20.9987 40.7832 -70.1254  255 255 255
11.481 37.039 -65.9323  255 255 255
13.8807 37.495 -66.5305  255 255 255
-47.2415 15.233 -43.8494  255 255 255
8.23994 35.1402 -64.098  255 255 255
13.916 36.7337 -65.6125  255 255 255
-32.3892 19.5834 -47.5138  255 255 255
53.6579 38.7176 -25.6406  255 255 255
-61.433 7.45889 -35.4567  255 255 255
19.3486 35.8854 -64.5686  255 255 255
-61.1869 6.96491 -35.1089  255 255 255
9.51881 31.3607 -59.5731  255 255 255
16.1075 33.7516 -63.0024  255 255 255
-79.5334 0.0333312 -28.1979  255 255 255
20.2721 34.8886 -63.5742  255 255 255
10.6474 31.1296 -59.5252  255 255 255
10.6017 30.552 -59.1708  255 255 255
13.3481 31.4089 -59.9982  255 255 255
12.126 30.7464 -59.2416  255 255 255
8.89565 28.5246 -57.0361  255 255 255
11.1208 28.0273 -57.0285  255 255 255
10.408 26.5502 -54.9185  255 255 255
-94.2406 -9.7815 -17.0329  255 255 255
4.4825 23.4019 -51.3927  255 255 255
13.15 23.7964 -52.0122  255 255 255
32.9884 30.965 -59.6598  255 255 255
10.6749 22.806 -50.7545  255 255 255
12.8082 23.3516 -51.9553  255 255 255
12.3613 21.6765 -47.9014  255 255 255
-32.9983 6.00606 -34.4849  255 255 255
32.8674 26.685 -54.898  255 255 255
37.0517 27.6656 -55.7114  255 255 255
29.6909 24.0609 -52.1814  255 255 255
58.1335 28.0141 -22.2281  255 255 255
-59.228 -6.77013 -21.6617  255 255 255
-2.66046 2.5963 25.455  255 255 255
-21.3929 -1.12963 8.55204  255 255 255
-2.91669 2.0447 25.2193  255 255 255
29.1213 20.1684 -47.8889  255 255 255
-36.2917 -3.88087 -22.7862  255 255 255
-21.3049 -3.54934 11.3792  255 255 255
-34.5704 -3.38884 -23.7262  255 255 255
-11.4478 -2.93736 27.9693  255 255 255
-22.8688 -5.50278 13.2883  255 255 255
7.97565 2.67437 22.4816  255 255 255
-44.6167 -8.62114 -18.3775  255 255 255
26.1398 13.8851 -40.2951  255 255 255
12.3776 2.72835 23.5358  255 255 255
26.2929 13.2737 -39.7894  255 255 255
37.3192 14.4569 -41.3967  255 255 255
51.9491 15.6658 -4.98285  255 255 255
52.0695 15.1535 -1.9587  255 255 255
12.8062 0.215459 27.3831  255 255 255
-37.9476 -11.8824 -14.8493  255 255 255
-8.84231 -7.04994 32.2037  255 255 255
-8.84231 -7.04994 32.2037  255 255 255
37.7792 12.4418 -40.8135  255 255 255
-14.7039 -8.92862 27.2082  255 255 255
35.0723 10.8454 -37.206  255 255 255
-36.6183 -12.7449 -13.7271  255 255 255
52.3716 13.2261 -3.5919  255 255 255
33.6313 9.88571 -36.9804  255 255 255
-17.2804 -9.93248 22.8698  255 255 255
36.2742 9.90853 -36.8064  255 255 255
-36.0667 -13.8516 -12.1666  255 255 255
-24.6789 -12.6867 21.3209  255 255 255
44.4283 11.9126 -39.1581  255 255 255
10.9231 -2.94765 31.4961  255 255 255
53.2775 11.9233 -1.77701  255 255 255
45.1274 11.3219 -38.4472  255 255 255
44.7634 10.8797 -38.0937  255 255 255
-0.0750821 -7.25993 35.6811  255 255 255
-0.0750821 -7.25993 35.6811  255 255 255
-19.0199 -12.4364 25.4832  255 255 255
0.769548 -7.02149 35.9031  255 255 255
54.0585 11.3134 -0.120683  255 255 255
51.4364 10.7557 -7.85774  255 255 255
-21.0081 -13.3866 22.6087  255 255 255
47.805 9.80069 -37.1507  255 255 255
10.8656 -5.31108 33.1  255 255 255
-3.30319 -10.0231 36.2107  255 255 255
-14.6953 -13.2637 28.0726  255 255 255
-11.4411 -12.8027 31.6733  255 255 255
5.45273 -7.77716 35.9233  255 255 255
10.3455 -6.36367 34.0344  255 255 255
0.319587 -9.75211 36.6922  255 255 255
-5.62474 -11.9799 35.4871  255 255 255
52.7721 6.38447 -7.77464  255 255 255
11.2291 -7.7286 33.9213  255 255 255
-13.9029 -15.4992 29.264  255 255 255
-50.521 -26.666 0.425229  255 255 255
-44.049 -25.0312 -1.00639  255 255 255
-21.9489 -18.6016 27.8365  255 255 255
-6.03547 -14.1418 35.4882  255 255 255
52.5625 4.57608 -9.30342  255 255 255
-1.73064 -13.1098 36.6781  255 255 255
-1.73064 -13.1098 36.6781  255 255 255
19.94 -6.2481 25.6477  255 255 255
3.11917 -12.4444 37.245  255 255 255
18.3716 -8.01346 28.7694  255 255 255
-70.5146 -36.009 9.7488  255 255 255
0.40433 -14.7651 37.5252  255 255 255
5.87693 -13.2887 37.0969  255 255 255
-20.9189 -22.3363 31.9718  255 255 255
55.7832 0.556943 -5.21604  255 255 255
7.06403 -14.2101 37.0872  255 255 255
54.4375 -1.83393 -9.87569  255 255 255
-9.21544 -20.792 34.4114  255 255 255
5.46479 -16.103 37.2448  255 255 255
-13.6272 -22.634 32.7884  255 255 255
15.502 -13.3988 32.7156  255 255 255
58.3341 -1.33857 0.247989  255 255 255
-6.49035 -20.6971 34.3334  255 255 255
-6.03579 -20.6253 34.8267  255 255 255
22.5087 -12.3289 24.6294  255 255 255
6.21512 -17.221 36.9502  255 255 255
7.21847 -17.0145 36.5086  255 255 255
-7.40912 -21.8592 35.4439  255 255 255
4.14722 -18.0995 36.868  255 255 255
4.73481 -18.0128 36.868  255 255 255
17.9383 -14.2149 30.8444  255 255 255
20.1473 -14.1278 28.0789  255 255 255
-3.0673 -21.3084 35.3907  255 255 255
-14.2903 -25.0244 34.3453  255 255 255
-13.2388 -25.181 34.5095  255 255 255
-5.88684 -23.3245 36.5519  255 255 255
-34.0624 -34.6717 11.2623  255 255 255
17.2392 -17.0225 31.3921  255 255 255
20.4316 -16.2834 28.7379  255 255 255
-5.79881 -24.165 36.464  255 255 255
22.4346 -15.8045 28.2926  255 255 255
57.7215 -7.0643 -5.13236  255 255 255
4.93824 -20.9725 35.9543  255 255 255
57.5323 -7.67496 -7.19886  255 255 255
-5.67236 -24.7544 36.2132  255 255 255
11.5005 -19.4537 34.8331  255 255 255
8.45737 -20.7567 35.4992  255 255 255
10.1989 -20.4123 35.0272  255 255 255
10.1975 -20.4117 35.0312  255 255 255
10.5755 -20.4428 34.7512  255 255 255
56.6691 -10.265 -8.92688  255 255 255
-74.7232 -50.7876 26.3517  255 255 255
0.653304 -24.6678 37.9071  255 255 255
-61.7139 -47.8928 23.2936  255 255 255
6.34983 -24.0693 37.4271  255 255 255
14.3644 -21.7427 34.7042  255 255 255
9.93576 -23.3243 36.6937  255 255 255
13.1069 -22.6108 35.6556  255 255 255
10.9537 -23.5372 36.6678  255 255 255
21.4818 -20.9939 29.9289  255 255 255
-52.4392 -46.9436 22.0271  255 255 255
-2.02609 -28.1144 37.4696  255 255 255
-2.03114 -28.0841 37.7536  255 255 255
2.39604 -27.1816 36.5282  255 255 255
-5.23994 -29.5994 38.7891  255 255 255
-9.38794 -32.2164 33.8467  255 255 255
-71.8021 -54.38 30.1505  255 255 255
-71.8197 -55.2708 30.5997  255 255 255
-39.8054 -45.7514 20.483  255 255 255
19.5065 -24.2622 33.0251  255 255 255
1.85094 -29.3556 38.5137  255 255 255
60.4043 -17.1714 -8.04001  255 255 255
5.44026 -28.4452 37.8459  255 255 255
60.7163 -16.4796 -3.05412  255 255 255
-59.168 -52.2581 27.9546  255 255 255
-44.1948 -47.8577 22.7907  255 255 255
-35.8793 -45.4447 20.2245  255 255 255
-35.8793 -45.4447 20.2245  255 255 255
-69.9656 -56.0863 31.8845  255 255 255
-34.6015 -45.6551 20.7649  255 255 255
-11.0312 -36.3415 29.4357  255 255 255
61.9394 -17.8998 -4.87581  255 255 255
-11.0998 -36.641 29.1236  255 255 255
61.1808 -18.6813 -7.52048  255 255 255
23.9569 -25.1274 30.859  255 255 255
23.2256 -25.2556 31.9623  255 255 255
2.31727 -31.237 38.7698  255 255 255
-10.7035 -37.4976 28.1424  255 255 255
3.04242 -31.1895 39.1509  255 255 255
-33.7119 -46.8918 20.9195  255 255 255
23.1932 -26.5402 30.7277  255 255 255
19.9765 -26.9231 35.774  255 255 255
15.4138 -28.335 37.1423  255 255 255
9.11406 -30.0396 39.3884  255 255 255
-65.9612 -57.5422 33.7675  255 255 255
23.7311 -27.7316 28.8699  255 255 255
16.3141 -29.0145 35.9579  255 255 255
16.3141 -29.0145 35.9579  255 255 255
3.02229 -33.4264 36.8402  255 255 255
24.6748 -28.4104 26.7024  255 255 255
47.6251 -26.3187 0.451449  255 255 255
-47.9191 -53.9985 28.3514  255 255 255
-35.6954 -50.2017 25.6284  255 255 255
56.0462 -25.1131 0.0652227  255 255 255
13.403 -33.2688 33.6845  255 255 255
-33.2171 -51.3791 27.4606  255 255 255
26.5918 -32.4291 20.8436  255 255 255
-65.0681 -61.9101 38.0721  255 255 255
4.19903 -38.086 32.8388  255 255 255
54.6673 -27.5932 3.70328  255 255 255
-24.987 -51.3664 25.3524  255 255 255
-66.9471 -63.9227 40.1248  255 255 255
13.0265 -37.3142 30.8181  255 255 255
38.7902 -33.5608 11.1659  255 255 255
6.84926 -40.5707 29.6542  255 255 255
11.9742 -39.312 28.3336  255 255 255
11.8303 -39.5219 29.1317  255 255 255
-41.2919 -58.1832 34.4407  255 255 255
37.5302 -36.1611 12.8322  255 255 255
-64.4762 -65.7335 42.1538  255 255 255
-60.4649 -65.2993 41.8016  255 255 255
-23.7754 -54.3425 30.7117  255 255 255
-23.7075 -55.5207 31.4689  255 255 255
-60.6994 -66.6956 43.1704  255 255 255
-37.2835 -59.8226 36.0169  255 255 255
-62.1838 -67.8641 44.5449  255 255 255
-22.4222 -56.132 32.1738  255 255 255
-61.985 -68.0718 44.8191  255 255 255
61.268 -35.3873 10.4269  255 255 255
52.92 -38.466 13.5333  255 255 255
-30.5582 -61.7137 37.8241  255 255 255
36.3534 -44.383 19.9398  255 255 255
9.20927 -55.8628 31.7591  255 255 255
55.726 -43.9618 24.9732  255 255 255
2.44022 -59.779 35.9477  255 255 255
20.0065 81.2394 -60.332  255 255 255
1.51481 73.223 -52.8543  255 255 255
23.0457 82.2259 -61.6523  255 255 255
24.9697 82.9885 -62.4023  255 255 255
22.7082 81.5503 -61.8596  255 255 255
22.6798 81.5318 -61.7858  255 255 255
24.4522 82.2029 -62.683  255 255 255
20.2444 80.2778 -61.1137  255 255 255
20.3341 80.3198 -61.3822  255 255 255
57.722 95.1649 -75.4511  255 255 255
18.5581 79.3346 -61.0127  255 255 255
17.2655 78.5746 -60.827  255 255 255
19.1602 79.0482 -61.2902  255 255 255
48.8026 90.9828 -72.2539  255 255 255
20.5441 79.5349 -61.8848  255 255 255
23.4859 80.7887 -63.2588  255 255 255
22.454 80.2844 -62.8987  255 255 255
31.7393 84.014 -66.9246  255 255 255
24.1028 80.4455 -63.9524  255 255 255
24.0529 80.4048 -63.8554  255 255 255
27.0375 80.7731 -65.6093  255 255 255
32.3337 82.2684 -68.6579  255 255 255
32.3129 82.1861 -68.5618  255 255 255
30.7522 80.51 -68.1277  255 255 255
-66.438 40.7146 -30.1982  255 255 255
59.8197 91.9178 -79.3021  255 255 255
-61.8398 42.2942 -33.4903  255 255 255
-58.7392 43.4101 -35.82  255 255 255
-30.0878 54.4827 -46.6307  255 255 255
-16.3831 59.8601 -51.8193  255 255 255
-64.8782 40.5854 -33.6841  255 255 255
30.658 77.7344 -69.8772  255 255 255
-43.8476 47.46 -43.4297  255 255 255
-34.7962 50.9303 -47.0076  255 255 255
60.7054 88.6319 -82.3335  255 255 255
60.0236 88.0304 -82.5797  255 255 255
-57.4273 40.7823 -38.9538  255 255 255
-44.1967 45.9145 -44.1761  255 255 255
62.332 88.1313 -84.5529  255 255 255
50.4741 83.2242 -80.6151  255 255 255
-65.182 36.2976 -35.5236  255 255 255
-58.1119 38.4225 -37.0475  255 255 255
8.93394 65.8715 -66.1211  255 255 255
-11.0557 57.539 -58.6763  255 255 255
-47.0481 42.391 -43.125  255 255 255
-68.6925 33.3257 -34.0021  255 255 255
-40.691 42.7614 -48.9999  255 255 255
-49.3557 38.2173 -47.4831  255 255 255
-55.5656 34.9458 -45.2305  255 255 255
53.746 76.7061 -88.2587  255 255 255
8.44586 58.7896 -71.8475  255 255 255
-46.8674 36.8515 -50.659  255 255 255
70.8678 83.248 -98.1759  255 255 255
-20.9825 46.2096 -61.3222  255 255 255
-22.9957 45.0921 -59.9571  255 255 255
-23.0188 45.2508 -60.8997  255 255 255
-5.77811 51.7127 -67.1075  255 255 255
-5.06649 51.7591 -68.185  255 255 255
55.3253 75.4014 -90.7173  255 255 255
-11.7148 48.9064 -65.8041  255 255 255
-21.745 44.0648 -62.5432  255 255 255
11.4052 56.8644 -75.9251  255 255 255
-4.72447 50.3535 -69.4908  255 255 255
15.0199 57.8999 -76.7334  255 255 255
